# .PCD v0.7 - Point Cloud Data file format
VERSION 0.7
FIELDS x y z
SIZE 4 4 4
TYPE F F F
COUNT 1 1 1
WIDTH 1412
HEIGHT 1
VIEWPOINT 0 0 0 1 0 0 0
POINTS 1412
DATA ascii
1.7332398 0.23493561 -0.29159823
1.7405872 0.23807369 -0.29288256
1.7250355 0.23807029 -0.29031393
1.7400068 0.24227932 -0.29288256
1.732084 0.24330996 -0.29159823
1.7343282 0.2457625 -0.2920258
1.7467337 0.24967377 -0.29416525
1.7184892 0.24775583 -0.28945884
1.7562866 0.25537172 -0.2958771
1.7509018 0.25674948 -0.29502198
1.7378954 0.25698769 -0.29288256
1.7477397 0.26060176 -0.29459444
1.7321874 0.26042271 -0.2920258
1.7420237 0.26405442 -0.29373768
1.7366331 0.26538429 -0.29288256
1.7413806 0.26826346 -0.29373768
1.723296 0.26760957 -0.2907415
1.7408915 0.27141917 -0.29373768
1.7354952 0.27272624 -0.29288256
1.7376975 0.27522427 -0.29331014
1.734831 0.27691945 -0.29288256
1.7420914 0.28023741 -0.29416525
1.7240208 0.279468 -0.29117069
1.736347 0.28361967 -0.29331014
1.7436044 0.28696859 -0.29459444
1.7331264 0.28739536 -0.29288256
1.737837 0.29033449 -0.29373768
1.7273591 0.29072982 -0.2920258
1.7270064 0.29281682 -0.2920258
1.7313584 0.29786077 -0.29288256
1.7360512 0.30082831 -0.29373768
1.73316 0.30248484 -0.29331014
1.7302674 0.30413482 -0.29288256
1.742535 0.3084622 -0.29502198
1.7295272 0.30831531 -0.29288256
1.7369144 0.31071499 -0.29416525
1.7390714 0.31326988 -0.29459444
1.7210081 0.31216347 -0.29159823
1.7509334 0.31977722 -0.29673386
1.7278254 0.31771478 -0.29288256
1.7350055 0.32120287 -0.29416525
1.7295737 0.32235926 -0.29331014
1.7216115 0.32302821 -0.2920258
1.7262696 0.32606199 -0.29288256
1.7208258 0.32718772 -0.2920258
1.7380807 0.33264503 -0.29502198
1.7401959 0.33523005 -0.29544955
1.7196285 0.33342341 -0.2920258
1.7418978 0.33992565 -0.2958771
1.7263769 0.33906275 -0.29331014
1.7309978 0.34214309 -0.29416525
1.7381388 0.34573731 -0.29544955
1.750303 0.35035604 -0.29758897
1.7375094 0.34888706 -0.29544955
1.7320589 0.3499704 -0.29459444
1.7291119 0.35155007 -0.29416525
1.7387457 0.35569704 -0.2958771
1.7332909 0.35676363 -0.29502198
1.7278262 0.35781562 -0.29416525
1.737445 0.36199749 -0.2958771
1.7420361 0.3651509 -0.29673386
1.7340558 0.365666 -0.29544955
1.7336127 0.36776099 -0.29544955
1.7256329 0.36824772 -0.29416525
1.7502905 0.37572137 -0.29844573
1.742305 0.37621003 -0.2971614
1.7217805 0.37395623 -0.29373768
1.7388854 0.37987205 -0.29673386
1.7309009 0.38031963 -0.29544955
1.7204137 0.38019505 -0.29373768
1.7224566 0.38282999 -0.29416525
1.7395318 0.38883144 -0.2971614
1.7342916 0.38876036 -0.29630628
1.7162886 0.38690341 -0.29331014
1.7233329 0.39068013 -0.29459444
1.7378719 0.39618453 -0.2971614
1.7348921 0.39771107 -0.29673386
1.7244045 0.39750054 -0.29502198
1.7139198 0.39726529 -0.29331014
1.718434 0.40050015 -0.29416525
1.7304527 0.40550637 -0.29630628
1.7249595 0.40641847 -0.29544955
1.7244672 0.40850246 -0.29544955
1.7239722 0.41058585 -0.29544955
1.7284726 0.41386527 -0.29630628
1.7279712 0.41595352 -0.29630628
1.7124923 0.41441718 -0.29373768
1.7094984 0.41587988 -0.29331014
1.7164778 0.41977519 -0.29459444
1.7159693 0.42184892 -0.29459444
1.7154584 0.42392203 -0.29459444
1.7249103 0.42846993 -0.29630628
1.7241307 0.43159553 -0.29630628
1.7236081 0.43367851 -0.29630628
1.7106321 0.43261209 -0.29416525
1.722555 0.43784252 -0.29630628
1.7170455 0.43865159 -0.29544955
1.696623 0.43561876 -0.2920258
1.7085212 0.4408749 -0.29416525
1.7079873 0.44293898 -0.29416525
1.6950327 0.44176599 -0.2920258
1.7094023 0.44771746 -0.29459444
1.6934203 0.44790736 -0.2920258
1.7517952 1.0735015 -0.34252349
1.7658091 1.0850261 -0.34551966
1.753571 1.0804274 -0.34338024
1.7697273 1.0933342 -0.34680235
1.7668853 1.0930537 -0.34637475
1.7764685 1.1019524 -0.3485142
1.7816774 1.1081669 -0.34979853
1.7716242 1.1048851 -0.34808666
1.7637563 1.1029406 -0.34680235
1.768949 1.1091632 -0.34808666
1.7610857 1.1071997 -0.34680235
1.7662635 1.1134348 -0.34808666
1.7649168 1.1155683 -0.34808666
1.7614014 1.1163272 -0.34765908
1.7643802 1.1212056 -0.3485142
1.7586985 1.1205804 -0.34765908
1.7638351 1.126852 -0.34894338
1.758145 1.1262106 -0.34808666
1.750301 1.124171 -0.34680235
1.7575743 1.1318446 -0.3485142
1.7475792 1.1283976 -0.34680235
1.759148 1.1388816 -0.34937099
1.7448472 1.1326175 -0.34680235
1.7434773 1.134725 -0.34680235
1.742105 1.1368308 -0.34680235
1.7478667 1.142097 -0.34808666
1.7378963 1.1385809 -0.34637475
1.7365193 1.14068 -0.34637475
1.7372818 1.144188 -0.34680235
1.7401863 1.1491182 -0.34765908
1.7238114 1.1412987 -0.3446629
1.724576 1.1448045 -0.34509212
1.7253263 1.1483084 -0.34551966
1.728204 1.1532394 -0.34637475
1.728941 1.1567529 -0.34680235
1.7211525 1.1545551 -0.34551966
1.7197561 1.1566339 -0.34551966
1.72261 1.1615787 -0.34637475
1.7126987 1.1579083 -0.3446629
1.7155522 1.1628603 -0.34551966
1.7205093 1.1692569 -0.34680235
1.7169758 1.1698908 -0.34637475
1.7325184 1.1835489 -0.34979853
1.7099118 1.1711383 -0.34551966
1.7148379 1.1775589 -0.34680235
1.7204741 1.1829593 -0.34808666
1.7105892 1.1792094 -0.34637475
1.7197201 1.1885717 -0.3485142
1.7098428 1.1848005 -0.34680235
1.7084099 1.1868656 -0.34680235
1.7196174 1.197735 -0.34937099
1.7097501 1.193933 -0.34765908
1.7146169 1.2004161 -0.34894338
1.7068598 1.1980612 -0.34765908
1.7075083 1.2015986 -0.34808666
1.706055 1.2036611 -0.34808666
1.6983103 1.201273 -0.34680235
1.7010493 1.2062968 -0.34765908
1.6920174 -2.6135368 -0.68971932
1.6910224 -2.6050944 -0.68803012
1.6969384 -2.6073046 -0.68915486
1.6959257 -2.5988746 -0.68746775
1.7060192 -2.6074526 -0.69028169
1.7091686 -2.6053894 -0.69028169
1.6969548 -2.5799687 -0.68408942
1.7140623 -2.5991323 -0.68971932
1.7115958 -2.5885811 -0.68746775
1.7133144 -2.5843873 -0.6869033
1.7220621 -2.5907795 -0.68915486
1.7223758 -2.5844719 -0.68803012
1.7325542 -2.5929503 -0.690844
1.7298803 -2.5855658 -0.68915486
1.7372509 -2.5898058 -0.690844
1.7361236 -2.5813777 -0.68915486
1.7264576 -2.5603199 -0.68408942
1.7323991 -2.5624461 -0.68521631
1.7397667 -2.5666547 -0.6869033
1.7485797 -2.5729566 -0.68915486
1.7531221 -2.572948 -0.68971932
1.7504966 -2.5624354 -0.68746775
1.7622036 -2.5728922 -0.690844
1.7566838 -2.5581975 -0.68746775
1.7597737 -2.5560732 -0.68746775
1.7772921 -2.574852 -0.69309556
1.7587118 -2.5413599 -0.68465173
1.7733688 -2.5559342 -0.68915486
1.7808101 -2.5600491 -0.690844
1.7780883 -2.5495591 -0.68859249
1.7797129 -2.5453281 -0.68803012
1.7783332 -2.5400856 -0.6869033
1.7859329 -2.5378647 -0.68746775
1.7919248 -2.5398533 -0.68859249
1.7964582 -2.5397587 -0.68915486
1.79071 -2.5251544 -0.68577862
1.7967016 -2.5271263 -0.6869033
1.7982802 -2.5228865 -0.68634093
1.8057605 -2.5269158 -0.68803012
1.8088126 -2.5247321 -0.68803012
1.8074137 -2.5163515 -0.68634093
1.8163919 -2.5224135 -0.68859249
1.8224159 -2.5243411 -0.68971932
1.8269531 -2.5241935 -0.69028169
1.8270144 -2.5178671 -0.68915486
1.8255754 -2.5094995 -0.68746775
1.8315979 -2.5113938 -0.68859249
1.8361148 -2.5143945 -0.68971932
1.8361467 -2.50807 -0.68859249
1.8286505 -2.4915085 -0.68465173
1.845217 -2.5077224 -0.68971932
1.8467331 -2.5034404 -0.68915486
1.8557999 -2.5093787 -0.69140637
1.8406711 -2.4826415 -0.68465173
1.8618586 -2.5048866 -0.69140637
1.8603338 -2.4965286 -0.68971932
1.8542219 -2.4820616 -0.68634093
1.8587413 -2.4818511 -0.6869033
1.8571665 -2.4735134 -0.68521631
1.8723782 -2.4875083 -0.68971932
1.8723187 -2.4811838 -0.68859249
1.8707149 -2.4728384 -0.6869033
1.8752412 -2.4726067 -0.68746775
1.884379 -2.4784296 -0.68971932
1.882795 -2.4732435 -0.68859249
1.8857821 -2.4709666 -0.68859249
1.8887663 -2.4686861 -0.68859249
1.8917478 -2.4664023 -0.68859249
1.8900787 -2.4580698 -0.6869033
1.8930473 -2.4557841 -0.6869033
1.9053384 -2.4655621 -0.69028169
1.9067616 -2.4612513 -0.68971932
1.9003799 -2.4469011 -0.68634093
1.9142634 -2.4586391 -0.69028169
1.9219245 -2.4623353 -0.69197088
1.9123718 -2.4440024 -0.68746775
1.9153235 -2.4416897 -0.68746775
1.9261241 -2.4493585 -0.69028169
1.9149264 -2.4290726 -0.68521631
1.9288837 -2.4407058 -0.68915486
1.9255198 -2.4304068 -0.6869033
1.9379398 -2.4400206 -0.69028169
1.9283419 -2.424926 -0.68634093
1.9296882 -2.4206095 -0.68577862
1.9294357 -2.4143023 -0.68465173
1.9339451 -2.4139581 -0.68521631
1.9464037 -2.423502 -0.68859249
1.9429567 -2.4132318 -0.68634093
1.944277 -2.4089072 -0.68577862
1.9535792 -2.4144571 -0.68803012
1.9564952 -2.4120946 -0.68803012
1.9578068 -2.4077594 -0.68746775
1.9510792 -2.3935714 -0.68408942
1.9571887 -2.3951511 -0.68521631
1.9713477 -2.406538 -0.68915486
1.965858 -2.3880408 -0.68521631
1.9768267 -2.3954604 -0.68803012
1.9732413 -2.3852389 -0.68577862
1.9876484 -2.3997009 -0.69028169
1.9840537 -2.389478 -0.68803012
1.9804375 -2.3792675 -0.68577862
1.9816847 -2.3749237 -0.68521631
1.9861815 -2.3744745 -0.68577862
1.9955794 -2.3798606 -0.68803012
1.9951806 -2.373554 -0.6869033
1.984955 -2.3556046 -0.68240237
2.0091136 -2.3784363 -0.68971932
2.0004907 -2.3624315 -0.68577862
2.0148556 -2.3735743 -0.68971932
2.0094841 -2.3614569 -0.6869033
2.0090411 -2.3551648 -0.68577862
2.0102355 -2.350806 -0.68521631
2.0114162 -2.3464406 -0.68465173
2.0291588 -2.3613582 -0.68971932
2.0237141 -2.3492734 -0.6869033
2.0267973 -2.3499801 -0.68746775
2.034616 -2.3532903 -0.68915486
2.0357955 -2.3489118 -0.68859249
2.0386322 -2.3464503 -0.68859249
2.043133 -2.3458993 -0.68915486
2.0442967 -2.341517 -0.68859249
2.0454526 -2.3371346 -0.68803012
2.0449204 -2.3308377 -0.6869033
2.0510945 -2.3321848 -0.68803012
2.045511 -2.3201768 -0.68521631
2.049994 -2.3196056 -0.68577862
2.0645914 -2.330442 -0.68971932
2.060657 -2.3203461 -0.68746775
2.0617647 -2.3159513 -0.6869033
2.0713289 -2.3210413 -0.68915486
2.0656629 -2.3090703 -0.68634093
2.065062 -2.3027928 -0.68521631
2.06954 -2.3021836 -0.68577862
2.0692325 -2.2990463 -0.68521631
2.0839186 -2.3097446 -0.68915486
2.0815997 -2.3015769 -0.68746775
2.0963206 -2.3122315 -0.69140637
2.0820274 -2.2908969 -0.68577862
2.0865033 -2.290256 -0.68634093
2.0978348 -2.2971125 -0.68915486
2.0988948 -2.2927039 -0.68859249
2.1102519 -2.2995243 -0.69140637
2.0958297 -2.2782764 -0.68577862
2.1037502 -2.281348 -0.68746775
2.1134043 -2.2862678 -0.68971932
2.1213412 -2.2892981 -0.69140637
2.1223781 -2.2848735 -0.690844
2.1147518 -2.2711535 -0.68746775
2.1192265 -2.2704523 -0.68803012
2.1271782 -2.2734578 -0.68971932
2.1111767 -2.2536254 -0.68408942
2.1312952 -2.2695987 -0.68971932
2.1322894 -2.2651665 -0.68915486
2.1315405 -2.2588956 -0.68803012
2.1307728 -2.2526231 -0.6869033
2.1369929 -2.2537379 -0.68803012
2.1502144 -2.2622008 -0.69140637
2.1406822 -2.2467294 -0.68746775
2.147861 -2.2433832 -0.68803012
2.1488123 -2.2389548 -0.68746775
2.1567957 -2.2418449 -0.68915486
2.163034 -2.2428985 -0.69028169
2.1675069 -2.2421083 -0.690844
2.168448 -2.2376647 -0.69028169
2.1552179 -2.218642 -0.68521631
2.1756201 -2.2342367 -0.690844
2.1858366 -2.2420168 -0.69365788
2.1725624 -2.223021 -0.68859249
2.1752467 -2.2203944 -0.68859249
2.1797068 -2.2195754 -0.68915486
2.1930857 -2.227808 -0.69253325
2.188637 -2.217922 -0.69028169
2.1913154 -2.215276 -0.69028169
2.1975651 -2.2162316 -0.69140637
2.198452 -2.2117741 -0.690844
2.1975396 -2.2055199 -0.68971932
2.2019968 -2.204659 -0.69028169
2.202863 -2.2002029 -0.68971932
2.1983199 -2.1903658 -0.68746775
2.2099738 -2.1966624 -0.69028169
2.2108238 -2.1922033 -0.68971932
2.2116594 -2.1877382 -0.68915486
2.2197289 -2.1904199 -0.690844
2.2264826 -2.1944313 -0.69253325
2.2236953 -2.1863933 -0.690844
2.2245233 -2.1819272 -0.69028169
2.2326083 -2.1845706 -0.69197088
2.227973 -2.174772 -0.68971932
2.2342367 -2.1756201 -0.690844
2.2386844 -2.1746876 -0.69140637
2.2449636 -2.1755209 -0.69253325
2.2494156 -2.1745713 -0.69309556
2.2447257 -2.1647964 -0.690844
2.2473397 -2.1620824 -0.690844
2.2481191 -2.1576076 -0.69028169
2.2562323 -2.1601632 -0.69197088
2.264348 -2.1626949 -0.69365788
2.2559257 -2.1494441 -0.69028169
2.260361 -2.1484656 -0.690844
2.2574222 -2.1404865 -0.68915486
2.2568719 -2.1373768 -0.68859249
2.2686858 -2.1433711 -0.69140637
2.2749758 -2.1441171 -0.69253325
2.2720094 -2.1361434 -0.690844
2.2782991 -2.1368766 -0.69197088
2.2771652 -2.1306467 -0.690844
2.2797379 -2.1278937 -0.690844
2.2804494 -2.1234076 -0.69028169
2.2848735 -2.1223781 -0.690844
2.2911675 -2.1230733 -0.69197088
2.2974591 -2.1237495 -0.69309556
2.2906859 -2.112361 -0.69028169
2.2913685 -2.107873 -0.68971932
2.2976542 -2.1085355 -0.690844
2.3076968 -2.1126206 -0.69309556
2.2989941 -2.0995531 -0.68971932
2.310919 -2.1053281 -0.69253325
2.3084283 -2.100508 -0.69140637
2.305326 -2.0925989 -0.68971932
2.3116159 -2.0932195 -0.690844
2.3216856 -2.0972378 -0.69309556
2.3248591 -2.0899241 -0.69253325
2.3349497 -2.093899 -0.69478476
2.331795 -2.0859921 -0.69309556
2.3343136 -2.083173 -0.69309556
2.3273418 -2.0719049 -0.69028169
2.3374431 -2.0758405 -0.69253325
2.3266346 -2.0612183 -0.68859249
2.3462567 -2.0735476 -0.69365788
2.3449523 -2.0673537 -0.69253325
2.3455424 -2.0628424 -0.69197088
2.3556659 -2.0667031 -0.69422024
2.3524311 -2.0588398 -0.69253325
2.3510852 -2.0526505 -0.69140637
2.3542457 -2.0529044 -0.69197088
2.366308 -2.0583949 -0.69478476
2.3611169 -2.0488729 -0.69253325
2.3616717 -2.0443571 -0.69197088
2.3679826 -2.0448201 -0.69309556
2.3608279 -2.0336673 -0.69028169
2.3729172 -2.0390916 -0.69309556
2.3657355 -2.0279562 -0.69028169
2.3701134 -2.0267458 -0.690844
2.3822243 -2.032124 -0.69365788
2.3730712 -2.0193672 -0.69028169
2.3890634 -2.0280039 -0.69422024
2.3934569 -2.0267625 -0.69478476
2.38814 -2.0173104 -0.69253325
2.3905756 -2.0144234 -0.69253325
2.3891139 -2.0082603 -0.69140637
2.3993268 -2.0119023 -0.69365788
2.388119 -1.9975948 -0.68971932
2.3873699 -1.9945178 -0.68915486
2.4014935 -2.0013952 -0.69253325
2.3999984 -1.99524 -0.69140637
2.3984997 -1.9890978 -0.69028169
2.4048131 -1.9894344 -0.69140637
2.3954604 -1.9768267 -0.68803012
2.4096136 -1.9836171 -0.69140637
2.4198635 -1.9871541 -0.69365788
2.4202993 -1.9826202 -0.69309556
2.4148226 -1.9732631 -0.690844
2.41327 -1.9671361 -0.68971932
2.4255006 -1.9722325 -0.69253325
2.4357753 -1.9757026 -0.69478476
2.440134 -1.9743549 -0.69534713
2.4385595 -1.96821 -0.69422024
2.4270878 -1.9541125 -0.69028169
2.4274678 -1.9495889 -0.68971932
2.4524221 -1.9671943 -0.69647181
2.4428976 -1.9547077 -0.69309556
2.4432738 -1.950171 -0.69253325
2.4456282 -1.9472175 -0.69253325
2.4599137 -1.9537395 -0.69590944
2.4403706 -1.9334137 -0.68971932
2.4626362 -1.9462153 -0.69534713
2.4490228 -1.9306538 -0.690844
2.4593432 -1.9339758 -0.69309556
2.4676776 -1.9357089 -0.69478476
2.454006 -1.9201994 -0.69028169
2.4783514 -1.9344256 -0.69647181
2.4646559 -1.9189478 -0.69197088
2.4749918 -1.9221965 -0.69422024
2.4652648 -1.9098707 -0.690844
2.479933 -1.9116627 -0.69365788
2.4842532 -1.910212 -0.69422024
2.4874279 -1.9102628 -0.69478476
2.4978025 -1.9134365 -0.69703627
2.4738684 -1.8903631 -0.68971932
2.4822073 -1.8919889 -0.69140637
2.4986522 -1.8997548 -0.69534713
2.4847498 -1.8844509 -0.690844
2.4931061 -1.8860475 -0.69253325
2.5034959 -1.8891559 -0.69478476
2.4976566 -1.8800173 -0.69253325
2.508054 -1.8831004 -0.69478476
2.5082879 -1.878541 -0.69422024
2.5085223 -1.8739895 -0.69365788
2.5107849 -1.870957 -0.69365788
2.5252831 -1.8770194 -0.69703627
2.5132596 -1.8633722 -0.69309556
2.518465 -1.8648747 -0.69422024
2.5145912 -1.8573059 -0.69253325
2.5229645 -1.858783 -0.69422024
2.5211174 -1.8527268 -0.69309556
2.5315516 -1.8556879 -0.69534713
2.5235384 -1.8451306 -0.69253325
2.5175543 -1.8360912 -0.69028169
2.5320954 -1.8420135 -0.69365788
2.5343194 -1.8389524 -0.69365788
2.5344832 -1.8344007 -0.69309556
2.5490546 -1.8402576 -0.69647181
2.5389087 -1.8282704 -0.69309556
2.5452394 -1.828163 -0.69422024
2.545383 -1.8236079 -0.69365788
2.54965 -1.8220068 -0.69422024
2.5477154 -1.8159779 -0.69309556
2.5499079 -1.8128982 -0.69309556
2.566607 -1.8201058 -0.69703627
2.542824 -1.8009324 -0.69028169
2.5512259 -1.802258 -0.69197088
2.5430105 -1.7918522 -0.68915486
2.5597274 -1.7990066 -0.69309556
2.5618994 -1.7959125 -0.69309556
2.5578184 -1.7884461 -0.69140637
2.5516412 -1.7795404 -0.68915486
2.5308509 -1.7604995 -0.68296474
2.5141897 -1.7444054 -0.6778993
2.5121129 -1.7384717 -0.67677248
2.5246654 -1.7426506 -0.67958635
2.5225873 -1.7367198 -0.67846161
2.4995487 -1.7164104 -0.67170703
2.5121007 -1.7205666 -0.67452091
2.5120816 -1.7160981 -0.67395854
2.5078518 -1.7087679 -0.67226934
2.5204203 -1.712876 -0.67508322
2.5203872 -1.708405 -0.67452091
2.5214186 -1.706882 -0.67452091
2.5150559 -1.6981467 -0.67226934
2.5213253 -1.6979479 -0.67339623
2.5191524 -1.6920639 -0.67226934
2.5211952 -1.6890187 -0.67226934
2.5169022 -1.6817403 -0.67058235
2.5316148 -1.6871496 -0.67395854
2.5421159 -1.6897159 -0.67621011
2.5420396 -1.6852401 -0.67564774
2.5504265 -1.6863676 -0.67733479
2.5544944 -1.6801991 -0.67733479
2.5607758 -1.6799016 -0.67846161
2.5861862 -1.6921048 -0.68465173
2.5733397 -1.6792626 -0.68071318
2.6030493 -1.6941689 -0.68803012
2.5986989 -1.6868708 -0.68634093
2.6189041 -1.6977384 -0.69140637
2.6294887 -1.7000911 -0.69365788
2.6187327 -1.6886533 -0.69028169
2.6378677 -1.6964833 -0.69478476
2.6463258 -1.6974062 -0.69647181
2.6526597 -1.6969484 -0.69759864
2.65042 -1.6910061 -0.69647181
2.6671567 -1.6836015 -0.69872332
2.6713455 -1.6817352 -0.69928783
2.6712174 -1.6771511 -0.69872332
2.6732421 -1.6739223 -0.69872332
2.6731098 -1.6693463 -0.69816101
2.6748273 -1.6569719 -0.69703627
2.6725001 -1.6510655 -0.69590944
2.686476 -1.6574579 -0.69928783
2.6906388 -1.6555409 -0.6998502
2.6709762 -1.6389967 -0.69422024
2.6857798 -1.6391596 -0.69703627
2.6986086 -1.6425171 -0.6998502
2.6919031 -1.6339813 -0.69759864
2.7025702 -1.635991 -0.6998502
2.7001905 -1.6300952 -0.69872332
2.6999834 -1.6255221 -0.69816101
2.7019455 -1.6222584 -0.69816101
2.7082679 -1.6216056 -0.69928783
2.7036784 -1.6144227 -0.69759864
2.7056272 -1.6111548 -0.69759864
2.7031982 -1.6052871 -0.69647181
2.7182579 -1.6097906 -0.6998502
2.6895757 -1.588418 -0.69197088
2.6739776 -1.5748513 -0.68746775
2.694638 -1.5848277 -0.69253325
2.6571043 -1.5584342 -0.68240237
2.6567855 -1.5539358 -0.68183786
2.6542759 -1.5481666 -0.68071318
2.6363792 -1.5334617 -0.67564774
2.6360259 -1.5289966 -0.67508322
2.6444721 -1.5296283 -0.67677248
2.6353157 -1.5200852 -0.67395854
2.6239395 -1.5093008 -0.67058235
2.6257613 -1.5061291 -0.67058235
2.6341894 -1.5067364 -0.67226934
2.6338031 -1.5022947 -0.67170703
2.6245754 -1.4928311 -0.6688931
2.6285856 -1.4909112 -0.66945553
2.6281755 -1.4864843 -0.6688931
2.6343918 -1.4858017 -0.67001784
2.6384063 -1.4838666 -0.67058235
2.6348672 -1.4797816 -0.66945553
2.6410913 -1.4790822 -0.67058235
2.6406517 -1.4746475 -0.67001784
2.6464353 -1.4694988 -0.67058235
2.6526506 -1.4687592 -0.67170703
2.6655431 -1.4716924 -0.67452091
2.6561923 -1.4623445 -0.67170703
2.6757762 -1.4689159 -0.67621011
2.6753221 -1.4644629 -0.67564774
2.6860111 -1.4660985 -0.6778993
2.69224 -1.465279 -0.67902398
2.7163363 -1.4741421 -0.68465173
2.7181156 -1.4708588 -0.68465173
2.7444906 -1.4808468 -0.690844
2.7418072 -1.4751241 -0.68971932
2.7726932 -1.4874239 -0.69703627
2.7722414 -1.4828707 -0.69647181
2.7865884 -1.4883806 -0.6998502
2.7879353 -1.4804516 -0.69928783
2.7915049 -1.4737098 -0.69928783
2.7923217 -1.4612228 -0.69816101
2.8220403 -1.4143575 -0.69928783
2.8163528 -1.4030018 -0.69703627
2.8157637 -1.3984641 -0.69647181
2.8129017 -1.3928081 -0.69534713
2.8031929 -1.3837857 -0.69253325
2.8002987 -1.3781513 -0.69140637
2.7951255 -1.3714124 -0.68971932
2.7625411 -1.3512861 -0.68127549
2.7322028 -1.3323574 -0.67339623
2.7086718 -1.3168336 -0.66720396
2.6965461 -1.3069128 -0.66382772
2.6881864 -1.3008562 -0.66157615
2.6806023 -1.293191 -0.65932465
2.6913223 -1.2943561 -0.66157615
2.6745551 -1.2823153 -0.65707314
2.6707666 -1.2607113 -0.6542592
2.6676855 -1.2553174 -0.65313232
2.6784017 -1.2564095 -0.65538388
2.6730108 -1.2499424 -0.65369475
2.6906421 -1.2542274 -0.65763545
2.6806366 -1.2456226 -0.65482157
2.6913621 -1.2466545 -0.65707314
2.6851342 -1.2358974 -0.65482157
2.6935561 -1.2358317 -0.65651071
2.6850622 -1.2299715 -0.6542592
2.6934736 -1.2298893 -0.65594625
2.6972768 -1.2276895 -0.65651071
2.682559 -1.2170799 -0.65257001
2.702549 -1.2222137 -0.65707314
2.6993864 -1.2168568 -0.65594625
2.6915841 -1.2094287 -0.65369475
2.6976857 -1.2082548 -0.65482157
2.694499 -1.2029207 -0.65369475
2.7005978 -1.2017319 -0.65482157
2.7020478 -1.198468 -0.65482157
2.6988418 -1.1931454 -0.65369475
2.7002816 -1.1898836 -0.65369475
2.7017174 -1.1866199 -0.65369475
2.707809 -1.1853944 -0.65482157
2.697597 -1.1770419 -0.6520077
2.706001 -1.1768187 -0.65369475
2.7137055 -1.1782203 -0.65538388
2.7057996 -1.170904 -0.65313232
2.7002199 -1.1646178 -0.65144533
2.7109537 -1.1653643 -0.65369475
2.7006841 -1.1570855 -0.65088081
2.7161055 -1.1598103 -0.6542592
2.7128241 -1.1545357 -0.65313232
2.7118802 -1.1502657 -0.65257001
2.7109301 -1.1459997 -0.6520077
2.7029464 -1.1387771 -0.64975613
2.7230628 -1.1433798 -0.6542592
2.7080324 -1.1332217 -0.6503185
2.7234662 -1.1358151 -0.65369475
2.7084188 -1.1256999 -0.64975613
2.719167 -1.126316 -0.6520077
2.7134781 -1.12012 -0.6503185
2.7101343 -1.1149091 -0.64919376
2.7091217 -1.1106669 -0.64862931
2.7191985 -1.1128796 -0.65088081
2.7158401 -1.1076759 -0.64975613
2.7218797 -1.1063052 -0.65088081
2.7232146 -1.1030155 -0.65088081
2.7269084 -1.1006781 -0.65144533
2.7258723 -1.0964314 -0.65088081
2.7224824 -1.091248 -0.64975613
2.7308803 -1.090786 -0.65144533
2.7274704 -1.0856043 -0.6503185
2.7216921 -1.0794967 -0.64862931
2.7277248 -1.078077 -0.64975613
2.717207 -1.0701257 -0.6469422
2.7255871 -1.0696237 -0.64862931
2.7245138 -1.0654051 -0.64806694
2.7281642 -1.0630339 -0.64862931
2.731822 -1.0606589 -0.64919376
2.730725 -1.0564378 -0.64862931
2.7367458 -1.0549672 -0.64975613
2.7350135 -1.0524019 -0.64919376
2.7339039 -1.0481842 -0.64862931
2.7327971 -1.0439742 -0.64806694
2.7411828 -1.0433838 -0.64975613
2.7448151 -1.0409712 -0.6503185
2.7318144 -1.0322666 -0.6469422
2.7235479 -1.0253839 -0.64469075
2.7295382 -1.0238754 -0.64581537
2.7439082 -1.0217085 -0.64862931
2.7332318 -1.0139743 -0.64581537
2.736836 -1.011551 -0.64637774
2.7404475 -1.0091238 -0.6469422
2.7345064 -1.0031856 -0.64525306
2.7404847 -1.0016235 -0.64637774
2.7345374 -0.99570602 -0.64469075
2.7381248 -0.9932667 -0.64525306
2.7411113 -0.99247646 -0.64581537
2.7327478 -0.98571509 -0.64356387
2.7411127 -0.98499101 -0.64525306
2.7470806 -0.9833892 -0.64637774
2.7410941 -0.97751129 -0.64469075
2.7542424 -0.97845054 -0.64750463
2.7314739 -0.96664661 -0.64187682
2.7422163 -0.96672142 -0.64412624
2.7457864 -0.96425158 -0.64469075
2.7445445 -0.96009171 -0.64412624
2.7457025 -0.95677477 -0.64412624
2.756458 -0.95678914 -0.64637774
2.755213 -0.95262837 -0.64581537
2.7443523 -0.94516236 -0.6430015
2.7454922 -0.94184566 -0.6430015
2.7562461 -0.94181395 -0.64525306
2.7477605 -0.9352082 -0.6430015
2.7488885 -0.93188739 -0.6430015
2.7500124 -0.92856514 -0.6430015
2.7390931 -0.92119259 -0.64018762
2.7565041 -0.92519486 -0.64412624
2.7503974 -0.91944897 -0.64243919
2.7515063 -0.916125 -0.64243919
2.7502019 -0.91200072 -0.64187682
2.7561226 -0.91026914 -0.6430015
2.7572205 -0.90693825 -0.6430015
2.7559021 -0.90281576 -0.64243919
2.7545779 -0.89869779 -0.64187682
2.7604899 -0.89693755 -0.6430015
2.7494864 -0.88969088 -0.64018762
2.7553918 -0.88792527 -0.64131236
2.7467852 -0.88148952 -0.6390608
2.7526937 -0.87971836 -0.64018762
2.7561736 -0.8771615 -0.64074999
2.7499626 -0.8715269 -0.6390608
2.7607059 -0.87126231 -0.64131236
2.7520607 -0.86487871 -0.6390608
2.757436 -0.86473799 -0.64018762
2.7560561 -0.86064887 -0.63962531
2.7595179 -0.8580718 -0.64018762
2.7629776 -0.8554877 -0.64074999
2.7615836 -0.85140061 -0.64018762
2.7553208 -0.84582561 -0.63849843
2.7660606 -0.84546655 -0.64074999
2.7597854 -0.83990359 -0.6390608
2.7656662 -0.83804339 -0.64018762
2.7642465 -0.83396786 -0.63962531
2.7555182 -0.8277033 -0.63737375
2.7638125 -0.82655525 -0.6390608
2.7599435 -0.82176626 -0.63793612
2.7658019 -0.81987369 -0.6390608
2.7619214 -0.81509417 -0.63793612
2.7604685 -0.8110407 -0.63737375
2.7614465 -0.80770469 -0.63737375
2.7619338 -0.80603617 -0.63737375
2.7663126 -0.80006462 -0.63793612
2.7648375 -0.79601908 -0.63737375
2.7657974 -0.79267776 -0.63737375
2.7667532 -0.78933531 -0.63737375
2.7701471 -0.78668517 -0.63793612
2.7710955 -0.78333735 -0.63793612
2.7646999 -0.77792311 -0.63624692
2.7705359 -0.77595377 -0.63737375
2.7739167 -0.77328724 -0.63793612
2.7675016 -0.76789623 -0.63624692
2.7684274 -0.76455164 -0.63624692
2.7669015 -0.76053327 -0.63568455
2.7776217 -0.7598713 -0.63793612
2.761374 -0.75184131 -0.63399535
2.7696402 -0.75049847 -0.63568455
2.7729959 -0.74781227 -0.63624692
2.766084 -0.74415594 -0.63455772
2.7817125 -0.74475718 -0.63793612
2.7678742 -0.7374692 -0.63455772
2.758939 -0.7315194 -0.63230616
2.7696483 -0.73077822 -0.63455772
2.7557883 -0.72356069 -0.63118148
2.7517486 -0.71894705 -0.6300568
2.7649086 -0.71881759 -0.63287067
2.7559354 -0.7129308 -0.63061911
2.7567947 -0.70960027 -0.63061911
2.7551913 -0.70563889 -0.6300568
2.7486529 -0.70042634 -0.6283676
2.7593489 -0.69960243 -0.63061911
2.7725086 -0.69937462 -0.63343298
2.7659559 -0.69416797 -0.63174385
2.7692554 -0.69144028 -0.63230616
2.7577615 -0.68503147 -0.62949228
2.7684541 -0.68413705 -0.63174385
2.7713315 -0.68307185 -0.63230616
2.7795606 -0.68153858 -0.63399535
2.8025963 -0.68359798 -0.6390608
2.8972473 -0.70297688 -0.66044933
1.7069743 -0.17593542 -0.38014892
1.6970744 -0.17284292 -0.37789738
1.7048591 -0.17155468 -0.3795844
1.7025392 -0.16924347 -0.37902209
1.7027425 -0.16718617 -0.37902209
1.7004166 -0.1648836 -0.37845972
1.723376 -0.16500822 -0.38352513
1.7159829 -0.16220814 -0.38183594
1.7165596 -0.15598679 -0.38183594
1.7243415 -0.15459344 -0.38352513
1.7345582 -0.15445311 -0.3857767
1.7195518 -0.15102287 -0.38239831
1.7248006 -0.14938392 -0.38352513
1.7275091 -0.14751571 -0.3840875
1.7352844 -0.14606783 -0.3857767
1.7405193 -0.1443907 -0.38690138
1.7356324 -0.14187391 -0.3857767
1.728202 -0.13916461 -0.3840875
1.7359701 -0.13767916 -0.3857767
1.7285333 -0.1349878 -0.3840875
1.7286952 -0.13289912 -0.3840875
1.7288544 -0.13081022 -0.3840875
1.7290113 -0.12872115 -0.3840875
1.7291656 -0.12663187 -0.3840875
1.7293172 -0.12454243 -0.3840875
1.7294664 -0.12245279 -0.3840875
1.7270807 -0.12018675 -0.38352513
1.7424299 -0.11913948 -0.38690138
1.7349035 -0.11757185 -0.38521433
1.7274359 -0.11496911 -0.38352513
1.7351824 -0.11337893 -0.38521433
1.7277087 -0.11079423 -0.38352513
1.7278414 -0.10870656 -0.38352513
1.7305051 -0.10677505 -0.3840875
1.7204878 -0.10407034 -0.38183594
1.7307582 -0.1025928 -0.3840875
1.7308809 -0.10050144 -0.3840875
1.738732 -0.096741885 -0.3857767
1.728699 -0.094088532 -0.38352513
1.7313464 -0.092134573 -0.3840875
1.7289213 -0.089910671 -0.38352513
1.7239486 -0.087563507 -0.38239831
1.7443554 -0.08648701 -0.38690138
1.7317715 -0.083765551 -0.3840875
1.7369523 -0.081912592 -0.38521433
1.7319688 -0.079580292 -0.3840875
1.7320166 -0.078533903 -0.3840875
1.7397279 -0.076777227 -0.3857767
1.7296652 -0.074239209 -0.38352513
1.7399085 -0.07257276 -0.3857767
1.7323759 -0.070161805 -0.3840875
1.7324594 -0.068068519 -0.3840875
1.7376233 -0.066168681 -0.38521433
1.7402388 -0.06416259 -0.3857767
1.7453887 -0.062240735 -0.38690138
1.7327682 -0.059694394 -0.3840875
1.7328391 -0.05760064 -0.3840875
1.7405286 -0.055750914 -0.3857767
1.7380574 -0.053569585 -0.38521433
1.7431955 -0.05161972 -0.38633904
1.7457942 -0.049585443 -0.38690138
1.7331554 -0.047130663 -0.3840875
1.7382959 -0.045168575 -0.38521433
1.7383492 -0.043068156 -0.38521433
1.7485356 -0.042263512 -0.38746589
1.7409624 -0.039975673 -0.3857767
1.7410094 -0.037872031 -0.3857767
1.7334304 -0.035611719 -0.3840875
1.7410958 -0.033664588 -0.3857767
1.751297 -0.031744987 -0.38802823
1.7513342 -0.029628864 -0.38802823
1.7412064 -0.027353056 -0.3857767
1.7463145 -0.025322739 -0.38690138
1.7336429 -0.023043819 -0.3840875
1.741294 -0.021041166 -0.3857767
1.7387799 -0.018909531 -0.38521433
1.7413398 -0.01683308 -0.3857767
1.7489839 -0.014793492 -0.38746589
1.7464522 -0.012661703 -0.38690138
1.7490145 -0.010566842 -0.38746589
1.7464777 -0.0084411763 -0.38690138
1.7414057 -0.007364565 -0.3857767
1.7337881 -0.0052373777 -0.3840875
1.7490435 -0.00317007 -0.38746589
1.7414209 -0.0010520838 -0.3857767
1.7414209 0.0010520838 -0.3857767
1.7337933 0.0031424297 -0.3840875
1.7388747 0.0052527431 -0.38521433
1.7312421 0.0073215822 -0.38352513
1.738857 0.0094549051 -0.38521433
1.7413828 0.011572837 -0.3857767
1.7388291 0.013657013 -0.38521433
1.7388113 0.015758038 -0.38521433
1.7337047 0.017806798 -0.3840875
1.7311436 0.019872488 -0.38352513
1.7361948 0.022028634 -0.38464984
1.7336286 0.024091199 -0.3840875
1.7386843 0.026262756 -0.38521433
1.7335654 0.028280629 -0.3840875
1.7233679 0.03019722 -0.38183594
1.7436337 0.033713657 -0.38633904
1.7410539 0.035768338 -0.3857767
1.733386 0.0377062 -0.3840875
1.7257161 0.039625593 -0.38239831
1.7332898 0.041895006 -0.3840875
1.7408606 0.044182777 -0.3857767
1.740806 0.046286236 -0.3857767
1.7458239 0.048530702 -0.38690138
1.7330672 0.050271858 -0.3840875
1.7431641 0.052672863 -0.38633904
1.7430991 0.054779101 -0.38633904
1.7404945 0.056802452 -0.3857767
1.7328039 0.058647532 -0.3840875
1.7301948 0.060652304 -0.38352513
1.7326572 0.062834866 -0.3840875
1.7427363 0.06530901 -0.38633904
1.7325002 0.067021832 -0.3840875
1.740037 0.069419138 -0.3857767
1.7374156 0.071417324 -0.38521433
1.7424446 0.072678544 -0.38633904
1.7296652 0.074239209 -0.38352513
1.7321101 0.076441042 -0.3840875
1.7320166 0.078533903 -0.3840875
1.7243036 0.080272056 -0.38239831
1.7419738 0.08320418 -0.38633904
1.7342558 0.084935963 -0.38464984
1.734152 0.087031409 -0.38464984
1.7391256 0.089387827 -0.3857767
1.7364812 0.091355786 -0.38521433
1.7414392 0.093726777 -0.38633904
1.7413247 0.095830902 -0.38633904
1.7310601 0.097364128 -0.3840875
1.741088 0.10003871 -0.38633904
1.7232077 0.10110053 -0.38239831
1.7332298 0.10379015 -0.38464984
1.7305694 0.10572955 -0.3840875
1.7304403 0.10782053 -0.3840875
1.7353851 0.11023381 -0.38521433
1.7352507 0.11233059 -0.38521433
1.7301067 0.11304726 -0.3840875
1.7249031 0.11480054 -0.38296279
1.7298285 0.11722793 -0.3840875
1.7296855 0.119318 -0.3840875
1.7295401 0.1214079 -0.3840875
1.7293922 0.12349763 -0.3840875
1.7267098 0.12540329 -0.38352513
1.726557 0.1274896 -0.38352513
1.7264017 0.12957571 -0.38352513
1.726244 0.13166164 -0.38352513
1.7260835 0.13374737 -0.38352513
1.7208498 0.13543382 -0.38239831
1.7257553 0.13791825 -0.38352513
1.7281177 0.14020868 -0.3840875
1.7127578 0.14104584 -0.38071129
1.7328427 0.14480804 -0.38521433
1.7250686 0.14625755 -0.38352513
1.7172935 0.14768849 -0.38183594
1.7323064 0.15108848 -0.38521433
1.7144943 0.15057868 -0.3812736
1.7168396 0.15287535 -0.38183594
1.7343704 0.15654887 -0.3857767
1.7189929 0.15725508 -0.38239831
1.7365144 0.16097401 -0.38633904
1.7260026 0.16420743 -0.3840875
1.723276 0.16604938 -0.38352513
1.7256007 0.16837803 -0.3840875
1.7380365 0.17171179 -0.38690138
1.7176014 0.17178878 -0.38239831
1.7173927 0.17386402 -0.38239831
1.7298269 0.17723466 -0.38521433
1.7144425 0.17775199 -0.38183594
1.7243346 0.1808838 -0.3840875
1.7241148 0.18296719 -0.3840875
1.7238925 0.18505031 -0.3840875
1.7312483 0.18795615 -0.3857767
1.7284966 0.18977086 -0.38521433
1.7233256 0.19025692 -0.3840875
1.7155164 0.1914932 -0.38239831
1.7228608 0.19442096 -0.3840875
1.7226245 0.19650257 -0.3840875
1.714811 0.19771053 -0.38239831
1.7372925 0.20242992 -0.38746589
1.7193799 0.20244879 -0.38352513
1.7292266 0.20572688 -0.3857767
1.7390677 0.20902905 -0.38802823
1.7236747 0.20929199 -0.38464984
1.7360379 0.21292207 -0.38746589
1.728212 0.21408217 -0.3857767
1.7203859 0.21522367 -0.3840875
1.7327266 0.21889427 -0.38690138
1.7072608 0.21777335 -0.3812736
1.7271571 0.22243245 -0.3857767
1.7268871 0.22451921 -0.3857767
1.7165372 0.22528309 -0.38352513
1.734037 0.22864556 -0.38746589
1.7262009 0.22973472 -0.3857767
1.7359953 0.2331733 -0.38802823
1.7281562 0.23424654 -0.38633904
1.7253569 0.23599052 -0.3857767
1.7250705 0.23807509 -0.3857767
1.7323339 0.24121092 -0.38746589
1.7320411 0.24330392 -0.38746589
1.7166464 0.24325693 -0.3840875
1.7238997 0.24640994 -0.3857767
1.7286257 0.2492172 -0.38690138
1.7157533 0.24947803 -0.3840875
1.7280184 0.25339389 -0.38690138
1.7126343 0.25325227 -0.38352513
1.7098163 0.2549471 -0.38296279
1.7195576 0.25852391 -0.38521433
1.7242635 0.26136237 -0.38633904
1.7189279 0.26267868 -0.38521433
1.7186092 0.26475549 -0.38521433
1.740883 0.27034062 -0.39027977
1.7256511 0.26904309 -0.38690138
1.7127767 0.2691561 -0.3840875
1.7325271 0.27440536 -0.38859057
1.7221577 0.2748965 -0.38633904
1.7268465 0.27778506 -0.38746589
1.7265096 0.2798714 -0.38746589
1.7236552 0.28154656 -0.38690138
1.7032564 0.28032798 -0.38239831
1.7229699 0.28571114 -0.38690138
1.7226233 0.2877928 -0.38690138
1.7222743 0.28987402 -0.38690138
1.7244351 0.29238084 -0.38746589
1.7237235 0.29654726 -0.38746589
1.7158508 0.29732791 -0.3857767
1.7355149 0.30289581 -0.39027977
1.7226373 0.30279365 -0.38746589
1.7172613 0.30398825 -0.38633904
1.7344054 0.30918491 -0.39027977
1.7142087 0.3066532 -0.3857767
1.713837 0.30872425 -0.3857767
1.7184582 0.31170097 -0.38690138
1.7055849 0.31149513 -0.3840875
1.7302021 0.3181518 -0.38971743
1.717317 0.31792817 -0.38690138
1.709445 0.31860766 -0.38521433
1.7190481 0.32254726 -0.38746589
1.6986831 0.32085142 -0.38296279
1.7282484 0.32859901 -0.38971743
1.7203608 0.32925367 -0.38802823
1.7124742 0.32988977 -0.38633904
1.7170681 0.33292699 -0.38746589
1.719156 0.33548766 -0.38802823
1.7087764 0.33560598 -0.3857767
1.7008891 0.33619189 -0.3840875
1.7079602 0.33973444 -0.3857767
1.7224927 0.34478927 -0.38915291
1.7023546 0.34182808 -0.38464984
1.7243626 0.34841532 -0.38971743
1.7189556 0.34948519 -0.38859057
1.7135582 0.35054439 -0.38746589
1.7056649 0.35107738 -0.3857767
1.7226585 0.35674542 -0.38971743
1.7247113 0.35934442 -0.39027977
1.70935 0.35829949 -0.38690138
1.7014642 0.35879332 -0.38521433
1.7159382 0.36401165 -0.38859057
1.7005922 0.36290404 -0.38521433
1.7125716 0.36762452 -0.38802823
1.7195795 0.37130296 -0.38971743
1.7042267 0.37014371 -0.38633904
1.7186772 0.37545744 -0.38971743
1.7033273 0.37426105 -0.38633904
1.7177649 0.3796097 -0.38971743
1.702418 0.37837625 -0.38633904
1.6994821 0.37987927 -0.3857767
1.7364357 0.38924101 -0.39421833
1.711182 0.38575223 -0.38859057
1.7107146 0.38781959 -0.38859057
1.720154 0.39214537 -0.39084211
1.6949171 0.38854709 -0.38521433
1.7018673 0.39230543 -0.38690138
1.7038743 0.39493689 -0.38746589
1.7058681 0.39757156 -0.38802823
1.6930195 0.39673445 -0.38521433
1.7098441 0.40285712 -0.38915291
1.7118356 0.40551022 -0.38971743
1.7088655 0.40698797 -0.38915291
1.7108506 0.40964589 -0.38971743
1.7227037 0.41468552 -0.39253131
1.707379 0.41317979 -0.38915291
1.7068785 0.41524249 -0.38915291
1.694037 0.41428715 -0.38633904
1.7132746 0.42118648 -0.39084211
1.7078358 0.42203835 -0.38971743
1.6925242 0.42042518 -0.38633904
1.716403 0.4296611 -0.39196679
1.7084975 0.42987654 -0.39027977
1.7104378 0.43256295 -0.39084211
1.7197641 0.43713313 -0.39309365
1.7216942 0.43983918 -0.39365599
1.7088586 0.43876034 -0.39084211
1.710785 0.44145909 -0.39140445
1.7127076 0.44416314 -0.39196679
1.6925091 0.44110826 -0.38746589
1.7091736 0.44765756 -0.39140445
1.7233794 0.45360419 -0.39478284
1.8036989 1.1188436 -0.470204
1.8066648 1.1237087 -0.47133082
1.7751263 1.1070693 -0.46345156
1.7780918 1.1119051 -0.46457621
1.7853581 1.119452 -0.46682778
1.786153 1.1229595 -0.46739012
1.7912453 1.1291832 -0.46907935
1.7855798 1.128629 -0.46795246
1.7691978 1.1212683 -0.46401387
1.769984 1.1247666 -0.46457621
1.7750545 1.1310019 -0.46626544
1.7608352 1.1249355 -0.46288705
1.7701705 1.1339138 -0.46570095
1.7602556 1.1305646 -0.46345156
1.7652906 1.1368139 -0.46513855
1.7575183 1.1348152 -0.46345156
1.7540067 1.135553 -0.46288705
1.7568998 1.1404412 -0.46401387
1.7512574 1.1397885 -0.46288705
1.7562646 1.1460708 -0.46457621
1.7491887 1.1429608 -0.46288705
1.7435596 1.1422912 -0.46176234
1.7421781 1.144397 -0.46176234
1.7429141 1.1478975 -0.46232468
1.7436441 1.1514015 -0.46288705
1.750726 1.1591183 -0.46513855
1.7450944 1.1584251 -0.46401387
1.7436935 1.1605328 -0.46401387
1.7380588 1.1598154 -0.46288705
1.7408837 1.1647433 -0.46401387
1.7331427 1.1625981 -0.46232468
1.7338431 1.1661083 -0.46288705
1.7345457 1.1696271 -0.46345156
1.728917 1.1688731 -0.46232468
1.7296047 1.1723856 -0.46288705
1.7344934 1.1787604 -0.46457621
1.7183672 1.170839 -0.46063551
1.7274477 1.1800849 -0.46345156
1.7260206 1.1821713 -0.46345156
1.7203975 1.1813765 -0.46232468
1.7175918 1.1809775 -0.46176234
1.7161635 1.1830521 -0.46176234
1.7189094 1.1880114 -0.46288705
1.7237401 1.1944304 -0.46457621
1.7160335 1.1921618 -0.46288705
1.7187655 1.1971416 -0.46401387
1.711066 1.194852 -0.46232468
1.7158676 1.2012917 -0.46401387
1.7144147 1.2033641 -0.46401387
1.7150354 1.2068956 -0.46457621
1.7094275 1.2060404 -0.46345156
1.7121139 1.2110367 -0.46457621
1.7147907 1.2160414 -0.46570095
1.7174656 1.2210599 -0.46682778
1.713922 1.221661 -0.46626544
1.7062407 1.2192976 -0.46457621
1.697096 1.2189691 -0.46288705
1.6935618 1.2195354 -0.46232468
1.7200229 -0.17098147 -0.47688815
1.7127452 -0.16816829 -0.47481367
1.7154417 -0.16634054 -0.47550514
1.7231358 -0.16498522 -0.47758231
1.7133435 -0.16195865 -0.47481367
1.718529 -0.160354 -0.47619668
1.7287142 -0.1591976 -0.47896531
1.7314016 -0.1573355 -0.47965682
1.7215953 -0.15434724 -0.47688815
1.7166952 -0.1528625 -0.47550514
1.7193755 -0.15100738 -0.47619668
1.709559 -0.14806385 -0.47342801
1.7297339 -0.14770569 -0.47896531
1.7274138 -0.14540532 -0.47827381
1.7275882 -0.14331797 -0.47827381
1.7177583 -0.14041285 -0.47550514
1.7179267 -0.13833718 -0.47550514
1.7330934 -0.13745101 -0.47965682
1.7282608 -0.13496652 -0.47827381
1.7109103 -0.13153185 -0.47342801
1.711068 -0.12946445 -0.47342801
1.7037153 -0.12683791 -0.47135085
1.7138757 -0.12551215 -0.47411951
1.7215353 -0.12398199 -0.47619668
1.7141739 -0.12137002 -0.47411951
1.7168292 -0.11947336 -0.47481367
1.7169724 -0.11739881 -0.47481367
1.7145327 -0.11619136 -0.47411951
1.712171 -0.11395316 -0.47342801
1.7123075 -0.11188424 -0.47342801
1.722456 -0.11045738 -0.47619668
1.7150743 -0.10790333 -0.47411951
1.7001842 -0.1049042 -0.46996787
1.7228451 -0.10421292 -0.47619668
1.7079483 -0.10124072 -0.47204503
1.7230918 -0.10004918 -0.47619668
1.7158115 -0.095466606 -0.47411951
1.7159256 -0.093393311 -0.47411951
1.7035135 -0.090653427 -0.47065938
1.7211618 -0.089507148 -0.47550514
1.7187656 -0.087300256 -0.47481367
1.7138536 -0.084974691 -0.47342801
1.7214749 -0.08326751 -0.47550514
1.7190708 -0.08106932 -0.47481367
1.7216711 -0.079107143 -0.47550514
1.7141976 -0.077725947 -0.47342801
1.7193078 -0.07587605 -0.47481367
1.7244064 -0.074013501 -0.47619668
1.711964 -0.071407177 -0.47273651
1.7195715 -0.069643229 -0.47481367
1.7196544 -0.067565411 -0.47481367
1.7197348 -0.065487489 -0.47481367
1.7147937 -0.063224435 -0.47342801
1.7173737 -0.061241712 -0.47411951
1.732495 -0.059684981 -0.47827381
1.7250413 -0.057341438 -0.47619668
1.7276143 -0.055337254 -0.47688815
1.7226696 -0.053095307 -0.47550514
1.715207 -0.050790917 -0.47342801
1.7152672 -0.048718389 -0.47342801
1.7253562 -0.046918575 -0.47619668
1.7254117 -0.044833783 -0.47619668
1.7254645 -0.042748932 -0.47619668
1.7229843 -0.041645914 -0.47550514
1.7255392 -0.039621532 -0.47619668
1.7280915 -0.037591029 -0.47688815
1.7155969 -0.035245344 -0.47342801
1.7306929 -0.033463441 -0.47758231
1.7232045 -0.031235766 -0.47550514
1.7257471 -0.029195985 -0.47619668
1.7282871 -0.027150104 -0.47688815
1.7208003 -0.024952766 -0.47481367
1.7208292 -0.022873497 -0.47481367
1.7283741 -0.020885045 -0.47688815
1.7283981 -0.018796628 -0.47688815
1.7259134 -0.016683955 -0.47619668
1.7184038 -0.014534837 -0.47411951
1.7209361 -0.012476712 -0.47481367
1.7284688 -0.010442713 -0.47688815
1.7234675 -0.0083299614 -0.47550514
1.7259786 -0.0072993226 -0.47619668
1.7259861 -0.0052138097 -0.47619668
1.7310134 -0.0031373913 -0.47758231
1.7285 -0.0010442776 -0.47688815
1.718465 0.0010382149 -0.47411951
1.7234848 0.0031237458 -0.47550514
1.7234796 0.005206238 -0.47550514
1.71845 0.007267483 -0.47411951
1.7284747 0.009398452 -0.47688815
1.725956 0.011470314 -0.47619668
1.7259408 0.013555786 -0.47619668
1.7309452 0.01568675 -0.47758231
1.7233967 0.017700925 -0.47550514
1.7283865 0.01984084 -0.47688815
1.718327 0.02180193 -0.47411951
1.7258273 0.023982789 -0.47619668
1.7308187 0.026143948 -0.47758231
1.730786 0.028235286 -0.47758231
1.7257291 0.030238595 -0.47619668
1.7281773 0.033414803 -0.47688815
1.7181028 0.035296828 -0.47411951
1.7306069 0.037645746 -0.47758231
1.7280449 0.039679065 -0.47688815
1.7229843 0.041645914 -0.47550514
1.7279439 0.043854956 -0.47688815
1.7304047 0.046009678 -0.47758231
1.7253276 0.047960944 -0.47619668
1.7277735 0.050118305 -0.47688815
1.7302265 0.052281931 -0.47758231
1.7351724 0.054529995 -0.47896531
1.7275805 0.056380991 -0.47688815
1.7350355 0.058723062 -0.47896531
1.7224296 0.060380094 -0.47550514
1.7198508 0.062370438 -0.47481367
1.7348113 0.065012015 -0.47896531
1.7297225 0.06691438 -0.47758231
1.724622 0.06880416 -0.47619668
1.7270418 0.070990913 -0.47688815
1.7194862 0.071720935 -0.47481367
1.7319282 0.074336343 -0.47827381
1.7193078 0.07587605 -0.47481367
1.7292396 0.078407988 -0.47758231
1.7241268 0.080263831 -0.47619668
1.7240286 0.082347043 -0.47619668
1.7339507 0.084921017 -0.47896531
1.7313436 0.086890474 -0.47827381
1.7262217 0.088724591 -0.47688815
1.7311287 0.091074191 -0.47827381
1.7234995 0.092761233 -0.47619668
1.7208835 0.094705954 -0.47550514
1.7207679 0.09678524 -0.47550514
1.7106311 0.098288737 -0.47273651
1.7405646 0.10211886 -0.48104244
1.7379382 0.10407211 -0.48035097
1.7302965 0.10571288 -0.47827381
1.7251548 0.1074912 -0.47688815
1.7275345 0.10973514 -0.47758231
1.7299019 0.11198433 -0.47827381
1.7248222 0.11270197 -0.47688815
1.747221 0.11628591 -0.48311961
1.734557 0.11754837 -0.47965682
1.7169011 0.1184361 -0.47481367
1.7242573 0.12103707 -0.47688815
1.7291194 0.12347815 -0.47827381
1.736478 0.12611271 -0.48035097
1.7388238 0.12839538 -0.48104244
1.7361681 0.13030873 -0.48035097
1.7335007 0.13221511 -0.47965682
1.7283419 0.13392235 -0.47827381
1.7231718 0.13561657 -0.47688815
1.7380164 0.13889812 -0.48104244
1.7278452 0.14018656 -0.47827381
1.7426715 0.14350924 -0.48242545
1.7475017 0.14603305 -0.48381111
1.7373248 0.14729667 -0.48104244
1.7296445 0.14875069 -0.47896531
1.7344669 0.1512769 -0.48035097
1.7318689 0.15210463 -0.47965682
1.7416793 0.1550872 -0.48242545
1.7314962 0.15628944 -0.47965682
1.7438049 0.1595249 -0.48311961
1.7261221 0.16001064 -0.47827381
1.7282255 0.16441891 -0.47896531
1.7280256 0.16650702 -0.47896531
1.7353163 0.16932604 -0.48104244
1.7351104 0.17142269 -0.48104244
1.732408 0.17326967 -0.48035097
1.7296942 0.1751094 -0.47965682
1.7394642 0.17822209 -0.48242545
1.7367545 0.1800653 -0.48173398
1.7390283 0.18242517 -0.48242545
1.7388067 0.18452632 -0.48242545
1.7435762 0.18716323 -0.48381111
1.7333722 0.18818675 -0.48104244
1.735635 0.19055459 -0.48173398
1.7330284 0.19132811 -0.48104244
1.7352868 0.19370005 -0.48173398
1.7300704 0.19523455 -0.48035097
1.7298331 0.19732486 -0.48035097
1.7345734 0.19998904 -0.48173398
1.7293514 0.20150462 -0.48035097
1.7266078 0.20329984 -0.47965682
1.7438017 0.2074609 -0.48450261
1.7161481 0.20627421 -0.47688815
1.738319 0.21107015 -0.48311961
1.7281024 0.21194878 -0.48035097
1.7552251 0.2174284 -0.48796275
1.749987 0.21892683 -0.48657975
1.7298093 0.21852574 -0.48104244
1.7270578 0.22029859 -0.48035097
1.7342478 0.22334564 -0.48242545
1.7240254 0.22414716 -0.47965682
1.733703 0.22753596 -0.48242545
1.7261107 0.22760043 -0.48035097
1.7308034 0.23034723 -0.48173398
1.7230622 0.23143615 -0.47965682
1.7451531 0.23655042 -0.48588559
1.7249905 0.23594041 -0.48035097
1.7346449 0.23939647 -0.48311961
1.7318625 0.2411453 -0.48242545
1.724124 0.24219178 -0.48035097
1.7188573 0.24357021 -0.47896531
1.7235336 0.2463576 -0.48035097
1.7182636 0.2477233 -0.47896531
1.7452748 0.25377056 -0.48657975
1.725109 0.25296727 -0.48104244
1.7272816 0.25541821 -0.48173398
1.7269716 0.25750509 -0.48173398
1.7316257 0.26033828 -0.48311961
1.7213882 0.26092651 -0.48035097
1.7185845 0.26262623 -0.47965682
1.7157888 0.264321 -0.47896531
1.740254 0.27024296 -0.48588559
1.7227458 0.26859012 -0.48104244
1.7273719 0.27144969 -0.48242545
1.7344787 0.27471447 -0.48450261
1.7316705 0.27641496 -0.48381111
1.7461921 0.28089705 -0.48796275
1.7334715 0.28099996 -0.48450261
1.7232269 0.28147662 -0.48173398
1.7377336 0.28600234 -0.48588559
1.7250142 0.28605014 -0.48242545
1.7345653 0.28978789 -0.48519409
1.726799 0.29063556 -0.48311961
1.7338598 0.29397881 -0.48519409
1.7232546 0.29646659 -0.48242545
1.7327827 0.30026194 -0.48519409
1.7324187 0.30235544 -0.48519409
1.7295836 0.30401462 -0.48450261
1.7193336 0.30435508 -0.48173398
1.7313113 0.30863333 -0.48519409
1.7261902 0.30879655 -0.48381111
1.7258159 0.31088209 -0.48381111
1.7180312 0.31162351 -0.48173398
1.7398624 0.31775531 -0.48796275
1.7296076 0.31804249 -0.48519409
1.7267575 0.31967592 -0.48450261
1.731298 0.32268062 -0.48588559
1.7161171 0.32199728 -0.48173398
1.7305131 0.32686353 -0.48588559
1.7128717 0.32567537 -0.48104244
1.7272564 0.33057341 -0.48519409
1.7219335 0.33171201 -0.48381111
1.7289131 0.33522364 -0.48588559
1.7285068 0.33731243 -0.48588559
1.7034853 0.33456677 -0.47896531
1.7350724 0.34294844 -0.48796275
1.712514 0.34064022 -0.48173398
1.7170259 0.34369498 -0.48311961
1.7291138 0.34720126 -0.48657975
1.7213135 0.34779924 -0.48450261
1.7307258 0.3518782 -0.48727125
1.7155569 0.35095328 -0.48311961
1.7175866 0.35353121 -0.48381111
1.7196125 0.3561146 -0.48450261
1.7216345 0.35870337 -0.48519409
1.7310215 0.36284211 -0.48796275
1.7232151 0.36337999 -0.48588559
1.7178711 0.36442167 -0.48450261
1.7296948 0.36911452 -0.48796275
1.7218866 0.36962411 -0.48588559
1.7361569 0.37488246 -0.49003991
1.7234468 0.37431815 -0.48657975
1.7180867 0.37532842 -0.48519409
1.7225373 0.37848195 -0.48657975
1.7147274 0.37893844 -0.48450261
1.7216177 0.38264355 -0.48657975
1.721154 0.38472351 -0.48657975
1.7135749 0.3841165 -0.48450261
1.7179996 0.38728911 -0.48588559
1.7175303 0.38936469 -0.48588559
1.7219552 0.39255598 -0.48727125
1.7165843 0.39351416 -0.48588559
1.7185593 0.39615318 -0.48657975
1.7156284 0.39766133 -0.48588559
1.7175969 0.40030509 -0.48657975
1.7171121 0.4023802 -0.48657975
1.7092965 0.40272811 -0.48450261
1.7136863 0.40594867 -0.48588559
1.7205185 0.40976328 -0.48796275
1.7175845 0.41125825 -0.48727125
1.7244061 0.41509533 -0.48934841
1.7190218 0.4159973 -0.48796275
1.7160826 0.41748163 -0.48727125
1.7228901 0.42134336 -0.48934841
